# .PCD v0.7 - Point Cloud Data file format
VERSION 0.7
FIELDS x y z
SIZE 4 4 4
TYPE F F F
COUNT 1 1 1
WIDTH 133
HEIGHT 1
VIEWPOINT 0 0 0 1 0 0 0
POINTS 133
DATA ascii
-1.0459974 -1.4507213 0.099898338
-1.0503747 -1.4475554 0.099898338
-1.047103 -1.4467207 0.099753343
-1.054389 -1.4365852 0.099535562
-1.0477453 -1.4366183 0.099317968
-1.0478305 -1.4204434 0.098592222
-1.0456575 -1.4145166 0.098253883
-1.0534321 -1.4065764 0.09815722
-1.0464023 -1.4042536 0.097818337
-1.0514765 -1.3934116 0.097503886
-1.0482278 -1.392603 0.097358607
-1.0525914 -1.384421 0.097141109
-1.05111 -1.3790109 0.096850552
-1.0479145 -1.3765465 0.096633047
-1.0506029 -1.3663217 0.096270546
-1.0473318 -1.3671894 0.096197769
-1.0470109 -1.3548652 0.095641285
-1.0525106 -1.3451046 0.095399432
-1.0452514 -1.3441758 0.09510915
-1.0445031 -1.3348751 0.094673872
-1.0509353 -1.3265014 0.094528601
-1.0466548 -1.3276755 0.09443184
-1.0460491 -1.3137939 0.093803041
-1.0539391 -1.3058043 0.093730539
-1.046219 -1.3058949 0.093464248
-1.0482314 -1.2987301 0.09322276
-1.0468906 -1.2864316 0.092642017
-1.1759965 -1.2706456 0.096705556
-1.0935875 -1.271067 0.093657762
-1.084064 -1.272386 0.093367755
-1.059473 -1.2744012 0.092569426
-1.0450464 -1.2753571 0.092097759
-1.170462 -1.2616037 0.096124992
-1.1628187 -1.268652 0.096124992
-1.1516523 -1.2636029 0.095496096
-1.1446725 -1.2640998 0.095254436
-1.138527 -1.2649794 0.095060915
-1.1239576 -1.2640628 0.094480179
-1.1145314 -1.2631594 0.094093323
-1.105852 -1.2666309 0.093919314
-1.0926937 -1.2638381 0.093319423
-1.0839148 -1.2691011 0.09322276
-1.0733491 -1.2644448 0.092642203
-1.0654062 -1.2643491 0.092351794
-1.0567161 -1.2648585 0.092061371
-1.0476166 -1.2679114 0.091867752
-1.2372169 -1.2552869 0.098447226
-1.2146518 -1.2519091 0.097431108
-1.1723646 -1.2545099 0.095907494
-1.1690798 -1.2540247 0.095762491
-1.1573186 -1.2595924 0.095544435
-1.1482567 -1.257332 0.095109433
-1.1248858 -1.2574339 0.094238319
-1.1105888 -1.2597157 0.093803316
-1.0769072 -1.2562796 0.092424139
-1.0602272 -1.2551221 0.091771089
-1.2446134 -1.2461193 0.098374724
-1.2341064 -1.2400855 0.097721666
-1.227185 -1.2451115 0.097649172
-1.2143537 -1.2485796 0.097286105
-1.1911843 -1.2456652 0.096270546
-1.1848664 -1.2480854 0.096124992
-1.1732047 -1.2448106 0.095544569
-1.2411937 -1.2342167 0.097769998
-1.2397335 -1.230778 0.09757667
-1.2236187 -1.2340159 0.097068325
-1.2066329 -1.2361536 0.096488051
-1.1953804 -1.238019 0.096124992
-1.1872921 -1.238596 0.095834993
-1.1781647 -1.2365322 0.095399439
-1.1698091 -1.2337164 0.094963871
-1.2006911 -1.2256114 0.095834993
-1.234553 -1.2156804 0.09677805
-1.0543907 -1.6614541 0.10991283
-1.0604062 -1.657621 0.10991283
-1.0548755 -1.6518987 0.10947726
-1.0613526 -1.6415681 0.10918727
-1.0564084 -1.6339266 0.10867921
-1.0556757 -1.6220157 0.10809865
-1.0495096 -1.6275606 0.10817115
-1.0516888 -1.6137613 0.10759059
-1.0638223 -1.6089016 0.10773559
-1.0535578 -1.605297 0.10725207
-1.0504327 -1.5928326 0.10657448
-1.0528445 -1.5881257 0.10642947
-1.0533085 -1.5784514 0.10599392
-1.0490096 -1.578196 0.10584892
-1.0522763 -1.5666338 0.10541335
-1.0546227 -1.5548627 0.10494183
-1.0529544 -1.5473632 0.10454281
-1.0547105 -1.5346161 0.10401058
-1.049894 -1.5368701 0.10396224
-1.0536183 -1.5264322 0.10359946
-1.0522966 -1.5147061 0.10301891
-1.0540535 -1.5055625 0.10265613
-1.0498399 -1.5053402 0.10251113
-1.0508054 -1.4951452 0.10207558
-1.0484174 -1.4841121 0.10149502
-1.0555816 -1.4790225 0.10149502
-1.0459846 -1.4730996 0.10091446
-1.0504297 -1.4699333 0.10091446
-1.0475347 -1.4640152 0.10055168
-1.0649079 -1.8643637 0.11992675
-1.0591168 -1.8646747 0.11978175
-1.0657005 -1.8579216 0.11963648
-1.0587951 -1.8588734 0.1194912
-1.0651751 -1.8492354 0.11920119
-1.0641043 -1.8328418 0.1183786
-1.0596081 -1.8344423 0.11833008
-1.06388 -1.8214531 0.11782257
-1.0636716 -1.8110342 0.11731452
-1.0629909 -1.8023868 0.11687896
-1.0625252 -1.7966324 0.11658896
-1.0628786 -1.7873567 0.1161534
-1.0580648 -1.7841655 0.11586285
-1.0621276 -1.7746917 0.11552451
-1.0599955 -1.7678903 0.11513729
-1.062368 -1.7573718 0.11470229
-1.0575579 -1.754199 0.11441173
-1.0618865 -1.7470267 0.11419423
-1.0591029 -1.7471985 0.11412173
-1.0624087 -1.736053 0.11368617
-1.0625182 -1.7268385 0.11325061
-1.0583417 -1.7294014 0.11325061
-1.0619233 -1.7119373 0.11252505
-1.0577831 -1.7144986 0.11252505
-1.0557519 -1.7065877 0.1120895
-1.0626111 -1.699264 0.11194449
-1.0560937 -1.6956751 0.11158171
-1.0604528 -1.6822163 0.11107393
-1.0574014 -1.6841354 0.11107393
-1.0603975 -1.6776341 0.11085588
-1.0594217 -1.8704706 0.12007175
