# .PCD v0.7 - Point Cloud Data file format
VERSION 0.7
FIELDS x y z
SIZE 4 4 4
TYPE F F F
COUNT 1 1 1
WIDTH 100
HEIGHT 1
VIEWPOINT 0 0 0 1 0 0 0
POINTS 100
DATA ascii
0.8265872 2.5864482 -0.60152423
0.77184111 2.5980043 -0.60039747
0.78198785 2.5976295 -0.60096192
0.80461764 2.5986824 -0.60264903
0.81640589 2.5923417 -0.6020866
0.82225227 2.5944924 -0.60293126
0.8355639 2.5929034 -0.60349357
0.77715999 2.6043763 -0.6020866
0.78973877 2.6005898 -0.6020866
0.79584461 2.6093554 -0.60433817
0.80297565 2.6045136 -0.60377586
0.81392449 2.606432 -0.60490054
0.78249466 2.6107399 -0.60377586
0.80127442 2.613009 -0.60546398
0.81935555 2.6127222 -0.60658973
0.71860498 2.5657706 -0.59026664
0.74620843 2.5684645 -0.59251809
0.67730212 2.5796061 -0.59082896
0.68288314 2.5755081 -0.59026664
0.69731325 2.5795383 -0.59195578
0.71288502 2.5752785 -0.59195578
0.72393513 2.5748289 -0.59251815
0.73362118 2.5773664 -0.59364283
0.74380904 2.5718029 -0.59308052
0.75527143 2.576407 -0.59476966
0.63453048 2.5878451 -0.59026664
0.64764738 2.5872104 -0.59082896
0.74335706 2.5878038 -0.59645891
0.75358045 2.5821915 -0.5958944
0.76197249 2.587677 -0.59758359
0.78144687 2.5845149 -0.5981459
0.76798075 2.5965009 -0.5998351
0.59902585 2.5493391 -0.58013576
0.60826212 2.5471509 -0.58013576
0.6414749 2.5494719 -0.58238727
0.69792503 2.5451403 -0.58463883
0.58909124 2.5555601 -0.58097929
0.61495674 2.5546865 -0.58210504
0.62048668 2.5572731 -0.58294964
0.63222849 2.5517805 -0.58238727
0.66531348 2.5591049 -0.58576351
0.67458558 2.5566766 -0.58576351
0.68604887 2.5562572 -0.58632696
0.56573224 2.5673416 -0.58238727
0.60811996 2.5602419 -0.58294964
0.62658679 2.5688615 -0.58576351
0.6476683 2.5610094 -0.5852012
0.65310395 2.5661826 -0.58660811
0.68337858 2.5648601 -0.58801508
0.69864756 2.5660095 -0.58914083
0.70707262 2.5663395 -0.58970428
0.71327293 2.5646234 -0.58970428
0.56425887 2.5754623 -0.58407432
0.64083773 2.5732024 -0.58745271
0.65918308 2.5738049 -0.58857739
0.66385001 2.5726099 -0.58857846
0.67225957 2.5730543 -0.58914191
0.47908527 2.5280445 -0.57000488
0.51365536 2.5264275 -0.57112962
0.54368907 2.5253298 -0.5722543
0.42245987 2.5381212 -0.57000488
0.45768583 2.5320063 -0.57000488
0.46778265 2.5353231 -0.57112962
0.47744012 2.5361054 -0.57169193
0.49936301 2.5344672 -0.5722543
0.50193197 2.5313718 -0.57169193
0.52385175 2.5373058 -0.5739435
0.53737825 2.5331774 -0.57366228
0.55249542 2.5364289 -0.57507032
0.56585217 2.5386844 -0.576195
0.57561404 2.5390921 -0.57675737
0.46609271 2.5433869 -0.57281882
0.47624308 2.5466712 -0.5739435
0.50797355 2.5457191 -0.57507032
0.53461522 2.5428517 -0.57563269
0.54436088 2.5433793 -0.576195
0.55158079 2.5470283 -0.57732189
0.56388587 2.5443325 -0.57732189
0.57673764 2.5440512 -0.57788426
0.58247918 2.5479524 -0.57900888
0.59295952 2.5442355 -0.5787288
0.60152119 2.5461428 -0.57957339
0.4883281 2.5599084 -0.57732189
0.49971852 2.552526 -0.576195
0.51204926 2.550081 -0.576195
0.5323348 2.5550091 -0.57816541
0.57169825 2.5503931 -0.57900888
0.52589488 2.5628314 -0.57957339
0.44381166 2.4983482 -0.56212348
0.44255906 2.5088921 -0.56437498
0.45664939 2.5089457 -0.56493735
0.48741663 2.5057464 -0.56550187
0.43780115 2.5174663 -0.56606418
0.48375535 2.5193913 -0.56831574
0.41447198 2.5278463 -0.56747115
0.42995164 2.5265539 -0.56775337
0.43214381 2.521019 -0.56662649
0.45152861 2.524076 -0.56803453
0.48727995 2.5212972 -0.56887805
0.41550076 2.5341156 -0.56887805
